ply
format ascii 1.0
element vertex 1152
property float x
property float y
property float z
property uchar red
property uchar green
property uchar blue
end_header
81.334099 -36.820480 662.143555 98 70 51
81.457939 -36.070335 662.541077 97 69 50
81.580269 -35.316254 662.932129 96 69 50
81.702271 -34.562256 663.323120 94 67 49
81.812790 -33.801281 663.710327 93 66 48
81.923012 -33.040344 664.097534 93 66 47
82.019493 -32.286278 664.412109 92 65 47
82.115784 -31.532373 664.726746 92 65 46
82.197075 -30.763750 665.047363 91 64 46
82.277237 -29.995047 665.368225 90 63 45
82.351631 -29.213646 665.682678 91 64 46
82.426910 -28.432251 665.997070 93 64 46
82.483047 -27.633175 666.300903 93 64 46
82.538216 -26.834127 666.604919 93 64 46
82.570580 -26.018681 666.893494 93 64 45
82.602600 -25.203163 667.182312 94 64 45
82.620377 -24.368366 667.451721 96 65 46
82.638565 -23.533722 667.721313 98 66 47
82.637352 -22.678671 667.966309 99 67 48
82.634277 -21.823561 668.211548 101 68 48
82.613243 -20.946325 668.426147 103 69 49
82.589806 -20.069567 668.640625 104 70 50
82.551140 -19.175890 668.824097 107 71 51
82.511047 -18.282335 669.007507 109 73 52
82.456779 -17.370575 669.156189 111 74 53
82.400398 -16.459059 669.305054 113 75 54
82.323067 -15.533496 669.420410 115 76 55
82.243759 -14.608434 669.536194 117 77 55
82.155334 -13.672439 669.617554 119 78 56
82.062401 -12.736589 669.698242 121 80 58
81.960121 -11.793805 669.745911 123 81 59
81.856087 -10.852664 669.794495 125 83 60
81.745842 -9.910975 669.808472 127 84 61
81.635262 -8.969170 669.822815 130 86 63
81.519188 -8.031110 669.803650 131 88 64
81.394974 -7.094108 669.783997 133 89 65
81.265015 -6.166087 669.735168 134 90 66
81.131493 -5.238704 669.687256 136 91 67
81.008217 -4.322486 669.613770 138 93 68
80.875473 -3.407801 669.541626 140 94 70
80.744751 -2.511772 669.448547 141 96 71
80.613594 -1.614717 669.354858 142 97 72
80.481384 -0.738345 669.245361 143 97 72
80.351974 0.138723 669.134888 144 98 73
80.223930 0.991607 669.007385 145 99 73
80.093941 1.844342 668.880981 146 99 74
79.960739 2.673224 668.746338 146 100 75
79.831612 3.503919 668.610046 147 101 75
79.696968 4.311135 668.463562 147 101 76
79.569122 5.119270 668.318237 147 102 76
79.439171 5.906282 668.163391 148 102 76
79.310715 6.693065 668.008667 149 103 77
79.182816 7.460932 667.846191 149 103 77
79.052017 8.228147 667.684021 149 103 77
78.917961 8.977251 667.516541 150 104 77
78.787445 9.726824 667.349792 150 104 77
78.662430 10.461737 667.176697 150 104 78
78.530510 11.195472 667.004639 150 104 78
78.399117 11.917384 666.827026 150 104 77
78.272491 12.639392 666.648132 150 104 77
78.143791 13.349700 666.465332 150 104 78
78.015900 14.060356 666.282715 150 104 78
77.891090 14.763410 666.096619 150 105 78
77.766685 15.466449 665.911377 150 105 78
77.637352 16.161728 665.722900 151 105 78
77.506058 16.856813 665.534180 151 105 78
77.376274 17.547089 665.343262 151 105 77
77.250549 18.237999 665.152527 151 105 78
77.123062 18.927116 664.958862 150 104 77
76.982147 19.614033 664.765137 150 104 77
76.848915 20.301567 664.567871 151 105 77
76.714561 20.989416 664.371094 151 105 77
76.577271 21.677608 664.169250 151 105 77
76.438751 22.365433 663.967773 150 104 77
76.300774 23.057934 663.760132 151 104 77
76.159409 23.749010 663.553772 151 104 77
76.007408 24.441893 663.342773 151 104 77
75.854240 25.134884 663.130127 150 104 76
75.698547 25.834133 662.912964 151 104 77
75.539627 26.533045 662.695801 151 105 77
75.367813 27.236135 662.475708 151 104 77
75.199730 27.939863 662.255188 151 105 77
75.025612 28.650116 662.027222 151 105 77
74.840935 29.358362 661.800232 151 105 77
74.649529 30.072924 661.570496 151 105 77
74.452217 30.786381 661.340637 151 105 77
74.244690 31.506815 661.108337 151 105 77
74.028740 32.225246 660.875916 152 105 77
73.809456 32.952705 660.639648 152 105 78
73.572784 33.674667 660.404053 152 106 78
73.327339 34.404995 660.164917 153 106 78
73.074913 35.133884 659.926086 153 106 78
72.819031 35.872135 659.682861 153 106 78
72.541161 36.602264 659.441406 154 107 79
72.256744 37.346561 659.139343 154 107 79
71.951424 38.083549 658.838989 155 107 79
71.639969 38.831097 658.533813 155 108 80
71.318100 39.574417 658.228333 155 108 80
77.842819 -60.872688 649.091858 153 111 82
77.988518 -60.074200 649.634338 148 106 78
78.132607 -59.275749 650.177002 145 104 77
78.265678 -58.484375 650.702209 141 101 74
78.397011 -57.693974 651.228333 137 97 72
78.516113 -56.909286 651.739624 133 94 69
78.635002 -56.124977 652.250916 129 91 67
78.744720 -55.346012 652.748047 125 88 65
78.858788 -54.566830 653.244141 123 86 63
78.968712 -53.792950 653.728699 121 85 62
79.076805 -53.019115 654.213867 119 84 61
79.186440 -52.249447 654.686768 118 83 60
79.293205 -51.480148 655.160828 117 83 60
79.400536 -50.715221 655.624695 116 82 60
79.510094 -49.950550 656.087402 116 82 59
79.620667 -49.190205 656.540405 116 82 59
79.734245 -48.429657 656.991699 115 82 59
79.851295 -47.672489 657.435791 114 81 59
79.968140 -46.915485 657.879761 113 80 59
80.085533 -46.160309 658.318115 112 80 58
80.201599 -45.405083 658.756714 110 79 57
80.322128 -44.652512 659.190857 108 78 56
80.443497 -43.899742 659.624878 106 76 55
80.568634 -43.148396 660.053650 104 75 54
80.694710 -42.397171 660.482056 103 73 53
80.823181 -41.646816 660.908508 100 72 52
80.950691 -40.896416 661.334961 98 70 51
81.078506 -40.145573 661.764648 97 69 50
81.206703 -39.395172 662.193726 95 68 49
81.328407 -38.643902 662.611084 93 66 48
81.450356 -37.893070 663.028687 92 66 48
81.569496 -37.140003 663.438110 91 65 47
81.687546 -36.387222 663.848328 90 64 46
81.799591 -35.631332 664.253357 88 63 45
81.911919 -34.875320 664.658264 87 62 45
82.012581 -34.118000 665.036377 86 61 44
82.114113 -33.360756 665.414307 86 61 44
82.202637 -32.603390 665.754822 86 61 43
82.291122 -31.846018 666.095276 86 60 43
82.364082 -31.077257 666.433838 86 60 43
82.436951 -30.308397 666.772217 86 60 43
82.496819 -29.526739 667.102234 86 60 43
82.557190 -28.745146 667.432190 87 61 43
82.596558 -27.946634 667.749451 88 61 43
82.635414 -27.148319 668.067322 89 61 44
82.655930 -26.333279 668.367065 89 61 43
82.677361 -25.518536 668.667419 90 61 43
82.682625 -24.683338 668.945129 92 62 44
82.686195 -23.848156 669.223206 93 63 45
82.676186 -22.990747 669.474060 95 64 45
82.665154 -22.133312 669.724731 97 65 46
82.635399 -21.253410 669.942993 99 66 47
82.606133 -20.373575 670.161865 102 67 48
82.565979 -19.473860 670.346130 104 69 49
82.524704 -18.573191 670.529419 106 71 50
82.468430 -17.653898 670.675842 109 72 51
82.412086 -16.733734 670.822571 112 74 53
82.339790 -15.797853 670.932922 114 75 53
82.269737 -14.860475 671.043518 116 76 54
82.185211 -13.910323 671.118835 118 77 55
82.097084 -12.960929 671.194336 120 79 57
82.002663 -12.002922 671.235413 123 81 58
81.907944 -11.044473 671.276062 125 82 59
81.803741 -10.085799 671.281982 126 83 61
81.699432 -9.128480 671.289734 128 85 62
81.588524 -8.173394 671.257568 131 87 63
81.470695 -7.221252 671.228516 132 88 64
81.349884 -6.276657 671.165771 134 90 66
81.228188 -5.332779 671.104980 136 91 67
81.103828 -4.403817 671.016846 138 93 68
80.977234 -3.474979 670.928345 140 94 69
80.850258 -2.566721 670.818604 142 96 71
80.720612 -1.658566 670.708313 143 97 72
80.591446 -0.775718 670.582153 144 98 73
80.463402 0.108422 670.455627 145 99 73
80.332962 0.965502 670.314697 145 99 73
80.199295 1.822480 670.172607 145 99 74
80.070618 2.654925 670.021057 146 100 74
79.941360 3.487285 669.867737 146 100 75
79.815880 4.295103 669.706116 147 101 75
79.685692 5.102664 669.545959 148 102 76
79.554382 5.887575 669.376404 148 102 76
79.419746 6.672375 669.207336 148 102 76
79.287201 7.436709 669.031616 149 103 77
79.152893 8.200299 668.855347 149 103 77
79.025932 8.947272 668.673584 149 103 77
78.895454 9.693368 668.493958 149 103 77
78.762100 10.423794 668.308838 150 104 77
78.630516 11.153837 668.124329 150 104 77
78.505905 11.872995 667.933594 150 104 77
78.373924 12.591314 667.744812 150 104 77
78.244217 13.297170 667.550659 150 104 77
78.111313 14.003072 667.358521 150 104 77
77.976036 14.699826 667.162231 150 104 78
77.843269 15.397242 666.966064 150 104 77
77.716599 16.088974 666.768127 150 104 77
77.589943 16.780485 666.570618 150 104 77
77.462532 17.468145 666.371826 150 104 77
77.330635 18.155430 666.171997 150 104 77
77.197418 18.840206 665.970947 150 104 77
77.064751 19.525242 665.770447 150 104 77
76.930252 20.210407 665.567871 150 104 77
76.789932 20.895447 665.364380 150 104 77
76.652061 21.582418 665.157043 150 104 77
76.512726 22.268469 664.950256 150 104 77
76.373772 22.959547 664.736877 150 104 76
76.230080 23.649513 664.524170 150 103 76
76.079407 24.343658 664.306152 150 103 76
75.926811 25.037910 664.088440 149 103 76
75.770920 25.738770 663.865051 150 103 76
75.606041 26.436863 663.642273 150 104 76
75.438614 27.143250 663.415283 150 104 76
75.273735 27.849691 663.187317 150 104 76
75.090286 28.561573 662.955505 150 104 76
74.907341 29.272886 662.722534 150 104 76
74.727592 29.994545 662.487793 150 104 76
74.523315 30.710287 662.253418 150 104 76
74.317917 31.436506 662.015930 150 104 76
74.104431 32.159901 661.778381 151 104 77
73.884247 32.893192 661.537476 151 104 77
73.648003 33.621273 661.298767 151 105 77
73.406364 34.360226 661.054749 151 105 77
73.145889 35.092480 660.813293 152 104 77
72.886124 35.836037 660.566956 152 105 77
72.615326 36.575928 660.321655 152 105 78
72.323975 37.325680 660.019409 153 106 78
72.022530 38.071678 659.718323 153 106 78
71.707809 38.825657 659.413025 154 107 79
71.380287 39.575386 659.109070 154 107 79
78.239204 -61.445061 650.132141 148 107 79
78.381874 -60.633286 650.679443 142 102 75
78.526581 -59.821136 651.225891 138 99 73
78.650002 -59.017715 651.758240 134 96 70
78.774475 -58.214115 652.290039 130 93 68
78.890778 -57.418053 652.807129 125 89 65
79.007370 -56.622097 653.324463 121 86 62
79.113365 -55.832546 653.829346 118 83 60
79.221077 -55.042500 654.333069 115 81 58
79.326134 -54.258099 654.825500 113 79 57
79.429916 -53.474178 655.318665 111 78 56
79.530632 -52.695957 655.800964 110 77 56
79.630508 -51.917763 656.283386 109 77 55
79.732666 -51.143948 656.755554 109 77 55
79.838402 -50.370152 657.226135 108 76 55
79.945297 -49.601112 657.686646 107 76 54
80.048607 -48.833572 658.149536 107 75 54
80.160210 -48.068466 658.602356 105 75 54
80.272415 -47.303486 659.055298 104 74 53
80.384911 -46.541656 659.502869 103 73 53
80.497620 -45.779865 659.950439 102 72 52
80.612808 -45.020931 660.394409 100 72 52
80.728493 -44.261806 660.838257 99 70 51
80.850090 -43.504128 661.276611 97 69 50
80.970573 -42.746780 661.715454 95 68 49
81.095184 -41.991207 662.150757 92 66 48
81.218391 -41.235832 662.586670 91 65 46
81.338943 -40.480042 663.019531 89 64 46
81.461250 -39.724072 663.452148 87 63 45
81.575394 -38.969734 663.882019 85 61 44
81.688225 -38.215500 664.312012 84 60 43
81.801918 -37.459934 664.733704 83 60 43
81.916031 -36.704437 665.155334 82 59 42
82.019318 -35.946438 665.574341 82 59 42
82.122101 -35.188480 665.993408 82 59 42
82.214844 -34.434704 666.361938 80 58 41
82.307747 -33.681007 666.730469 80 57 41
82.386940 -32.920410 667.097229 80 57 41
82.466644 -32.159851 667.463928 81 57 41
82.532692 -31.390783 667.819946 81 57 40
82.596771 -30.621653 668.176086 82 57 41
82.643105 -29.839842 668.521606 81 57 40
82.691017 -29.058136 668.867004 82 57 40
82.714256 -28.260410 669.197937 83 57 41
82.736320 -27.462593 669.529114 84 58 41
82.745415 -26.648148 669.840576 85 58 41
82.753960 -25.833836 670.152100 86 58 41
82.743019 -24.998215 670.438721 87 59 41
82.731674 -24.162460 670.725159 89 60 42
82.713402 -23.302801 670.981750 91 61 43
82.694374 -22.443291 671.238464 94 63 44
82.656250 -21.560682 671.460938 97 64 45
82.617615 -20.678053 671.683350 100 66 46
82.573257 -19.771870 671.867798 103 68 48
82.527626 -18.865862 672.052490 106 69 49
82.474480 -17.937719 672.197205 109 71 51
82.419609 -17.009626 672.341919 112 73 52
82.353607 -16.061768 672.447021 114 74 53
82.286446 -15.114345 672.552246 117 76 55
82.210030 -14.149524 672.621521 119 78 56
82.127037 -13.185506 672.690613 121 79 57
82.040085 -12.212023 672.723877 123 81 58
81.953880 -11.238325 672.757690 125 83 60
81.858765 -10.262300 672.756287 128 85 61
81.760315 -9.286567 672.754150 130 86 63
81.655518 -8.316818 672.713989 132 88 64
81.543854 -7.347699 672.672668 134 89 65
81.431747 -6.387887 672.597656 136 91 67
81.316017 -5.428121 672.522766 138 93 68
81.194038 -4.485634 672.419861 140 94 69
81.073486 -3.543204 672.316406 141 96 71
80.948837 -2.623822 672.189880 143 97 72
80.820442 -1.705235 672.063599 144 98 73
80.694038 -0.813796 671.920593 145 98 73
80.566109 0.077321 671.777405 145 99 73
80.438972 0.939723 671.619873 146 99 74
80.309723 1.801708 671.462708 146 100 74
80.180725 2.635957 671.294678 146 100 74
80.054977 3.470895 671.126465 147 100 75
79.923714 4.277964 670.949707 147 101 75
79.790657 5.084911 670.773376 148 101 76
79.657104 5.866854 670.589661 148 102 76
79.524078 6.650070 670.405396 148 102 76
79.395638 7.411769 670.215271 148 102 76
79.260757 8.172550 670.026794 149 103 77
79.120956 8.914558 669.833069 149 103 77
78.984406 9.657489 669.639221 149 103 77
78.852562 10.383890 669.440674 149 103 77
78.717918 11.109644 669.243652 149 103 77
78.587128 11.824122 669.042053 149 103 77
78.451530 12.538419 668.840637 150 104 77
78.321602 13.241030 668.636780 149 103 77
78.186111 13.942315 668.434448 149 103 77
78.055801 14.635164 668.228149 149 103 77
77.922623 15.327649 668.021790 149 104 77
77.789421 16.015095 667.814514 149 104 77
77.658295 16.702604 667.607239 149 104 77
77.525696 17.385910 667.400269 149 104 77
77.399071 18.069983 667.193237 149 103 77
77.264725 18.752155 666.985535 149 103 76
77.125023 19.432680 666.777954 149 103 76
76.992760 20.116133 666.568054 149 103 76
76.857689 20.798891 666.358582 149 103 76
76.719398 21.484501 666.145508 149 103 76
76.573853 22.168579 665.932800 149 103 76
76.432198 22.858856 665.713440 149 103 76
76.285980 23.547768 665.495667 149 103 76
76.141296 24.243540 665.271179 149 103 76
75.987206 24.937616 665.047424 148 102 75
75.825005 25.637938 664.817932 149 102 75
75.662956 26.338417 664.588440 149 103 75
75.500397 27.047728 664.354553 149 103 75
75.329170 27.755430 664.122253 149 102 75
75.152725 28.472008 663.884583 149 103 76
74.968353 29.186497 663.647217 149 103 76
74.778252 29.909100 663.406738 149 103 76
74.579498 30.629950 663.167175 149 103 76
74.376160 31.361210 662.924255 149 103 76
74.158562 32.088661 662.682373 150 103 76
73.941315 32.828754 662.437744 150 104 76
73.704086 33.563004 662.194519 150 104 76
73.456146 34.305210 661.947815 150 104 76
73.203697 35.046131 661.701416 150 104 76
72.944031 35.796474 661.451477 151 104 77
72.663025 36.540375 661.203613 151 105 77
72.377457 37.299492 660.901123 152 105 77
72.071861 38.051113 660.599243 152 105 78
71.754639 38.812382 660.294983 152 106 78
71.426208 39.569313 659.991394 153 106 78
78.631256 -62.014336 651.179565 142 103 76
78.772530 -61.189930 651.729797 136 98 72
78.915512 -60.365211 652.279297 132 95 70
79.038742 -59.548203 652.814148 127 91 67
79.165215 -58.731224 653.348206 123 87 64
79.278503 -57.924152 653.870117 118 84 61
79.388786 -57.116867 654.392212 114 81 58
79.492180 -56.316059 654.901611 111 78 56
79.594261 -55.515305 655.411743 107 76 54
79.695923 -54.721638 655.909668 105 74 53
79.797455 -53.927486 656.407410 103 72 51
79.892906 -53.140076 656.896667 102 72 51
79.987648 -52.352867 657.386169 102 71 51
80.085342 -51.571030 657.864563 101 71 51
80.182884 -50.789295 658.343018 101 71 51
80.284462 -50.012859 658.812256 100 70 50
80.385468 -49.236382 659.281372 98 69 50
80.490555 -48.464199 659.742859 97 69 49
80.596886 -47.691967 660.204163 96 68 49
80.705856 -46.923130 660.660156 95 67 48
80.814934 -46.154339 661.116211 93 66 48
80.928650 -45.389225 661.568359 91 65 47
81.041199 -44.623840 662.020996 90 64 46
81.156998 -43.861389 662.470337 88 63 45
81.273094 -43.098782 662.919373 87 62 44
81.392578 -42.337280 663.365479 85 61 44
81.511543 -41.576164 663.812378 84 60 43
81.627831 -40.816715 664.258728 82 59 42
81.744827 -40.057198 664.705322 81 58 42
81.855919 -39.300259 665.146851 79 57 40
81.967186 -38.542953 665.588013 78 56 40
82.073448 -37.784904 666.023193 77 55 39
82.177963 -37.027012 666.458740 77 55 39
82.273148 -36.271690 666.873535 76 55 39
82.367401 -35.516476 667.288452 76 55 39
82.447395 -34.761364 667.679138 77 55 39
82.528229 -34.006153 668.069763 76 55 39
82.595146 -33.245827 668.454834 76 54 39
82.663170 -32.485397 668.839539 76 54 38
82.714348 -31.716932 669.213745 76 54 38
82.765434 -30.948294 669.587891 76 54 38
82.794029 -30.168703 669.950439 77 54 38
82.822014 -29.389112 670.313232 77 54 38
82.833664 -28.593136 670.659180 78 54 38
82.844688 -27.797344 671.005249 79 55 38
82.831940 -26.984138 671.330200 81 55 39
82.819145 -26.171064 671.655273 83 56 40
82.797844 -25.335779 671.952637 85 58 40
82.775307 -24.500479 672.250244 88 59 41
82.738258 -23.640537 672.514648 90 60 42
82.701569 -22.780506 672.778870 93 62 44
82.656128 -21.894674 673.005615 97 64 45
82.607628 -21.008894 673.232483 100 66 46
82.553398 -20.096498 673.417175 103 67 48
82.500313 -19.184095 673.602356 106 69 49
82.442085 -18.245777 673.743713 110 71 50
82.384148 -17.307920 673.884949 113 73 52
82.320351 -16.346468 673.985962 115 75 53
82.255470 -15.384501 674.085754 118 77 55
82.181328 -14.404071 674.148376 121 79 57
82.107063 -13.423270 674.211609 124 81 58
82.027504 -12.430203 674.238708 126 83 60
81.946106 -11.439421 674.267517 129 85 62
81.859413 -10.441772 674.257690 131 87 63
81.771164 -9.446802 674.249695 133 88 64
81.672874 -8.455701 674.199402 135 90 66
81.580284 -7.463206 674.148010 137 92 67
81.474686 -6.485470 674.058411 139 93 69
81.367538 -5.507463 673.968201 140 95 70
81.255928 -4.548694 673.846741 142 96 71
81.143272 -3.589931 673.725525 143 97 72
81.021942 -2.658294 673.581299 145 98 73
80.895683 -1.726703 673.436279 145 99 73
80.771645 -0.826722 673.275330 146 99 74
80.648430 0.073952 673.114075 146 100 74
80.525215 0.942281 672.940125 147 100 75
80.396179 1.809172 672.766357 147 100 75
80.263580 2.644280 672.581177 148 101 75
80.127502 3.478145 672.394836 148 101 75
79.993912 4.283319 672.202332 148 101 75
79.861130 5.088905 672.009460 148 102 76
79.731239 5.868332 671.809814 148 102 76
79.597038 6.646293 671.611694 148 102 76
79.464668 7.404313 671.407166 148 102 76
79.330803 8.161601 671.204285 149 102 76
79.196449 8.899968 670.996887 149 102 76
79.067368 9.638839 670.788818 149 103 77
78.931122 10.359401 670.578491 149 103 77
78.795753 11.080348 670.366943 149 103 77
78.661224 11.788061 670.153320 149 103 77
78.520302 12.495032 669.939392 149 103 77
78.387726 13.192377 669.723511 149 103 77
78.258064 13.890326 669.506287 149 103 77
78.122612 14.577634 669.290222 149 103 77
77.986839 15.265125 669.074280 149 103 77
77.856018 15.946920 668.857483 149 103 77
77.721573 16.627846 668.640747 149 103 76
77.589249 17.305962 668.425842 149 103 77
77.452232 17.983419 668.212036 149 103 76
77.322838 18.662458 667.996826 148 103 76
77.189308 19.340048 667.783203 148 102 76
77.049675 20.019396 667.568542 148 103 76
76.910179 20.698420 667.354004 148 103 76
76.773438 21.382141 667.135071 148 102 76
76.629311 22.063892 666.918030 148 102 75
76.487801 22.752491 666.692505 148 102 75
76.342537 23.440100 666.469788 148 102 75
76.184578 24.133158 666.239380 148 102 75
76.037529 24.828362 666.007996 148 102 75
75.886528 25.531704 665.772400 148 102 75
75.722008 26.231890 665.536621 148 102 75
75.551537 26.941612 665.296326 148 102 75
75.379669 27.650768 665.057129 148 102 75
75.196327 28.368280 664.815308 148 102 75
75.019485 29.087818 664.571960 148 102 75
74.832314 29.815134 664.326721 148 102 75
74.632401 30.538235 664.081177 148 102 75
74.428665 31.274075 663.833618 149 102 75
74.216286 32.007702 663.587036 149 103 75
73.989090 32.749710 663.338867 149 103 75
73.760338 33.492241 663.090576 149 103 75
73.516975 34.241837 662.840149 149 103 75
73.256981 34.986549 662.590881 150 103 76
72.993332 35.742752 662.338867 150 103 76
72.716949 36.494190 662.086670 150 104 77
72.422592 37.257435 661.784058 151 104 77
72.121674 38.018478 661.482056 151 105 77
71.806366 38.787861 661.177979 151 105 77
71.474602 39.551010 660.874817 152 105 78
79.027695 -62.583786 652.226501 136 98 72
79.169388 -61.745941 652.778015 129 92 68
79.310127 -60.908241 653.329529 124 89 66
79.432159 -60.078320 653.868347 120 86 63
79.554886 -59.248558 654.407104 114 82 60
79.662910 -58.429901 654.933228 110 78 57
79.770813 -57.611374 655.459412 107 76 54
79.870430 -56.799797 655.974304 103 73 52
79.971542 -55.988297 656.489014 100 70 50
80.065704 -55.185181 656.993958 98 69 49
80.160225 -54.381870 657.498779 96 68 48
80.256142 -53.585403 657.992798 95 67 47
80.346420 -52.788174 658.488281 94 66 47
80.437355 -51.998020 658.973877 94 66 47
80.529640 -51.207928 659.459167 93 66 47
80.624947 -50.423946 659.936646 92 65 47
80.722397 -49.639256 660.413269 91 64 46
80.821350 -48.859592 660.883118 90 64 45
80.921509 -48.079937 661.352844 88 63 45
81.026825 -47.304565 661.817566 88 63 45
81.132904 -46.528915 662.281982 86 61 44
81.241760 -45.757641 662.743225 84 60 43
81.350342 -44.986565 663.204590 83 59 42
81.464439 -44.218567 663.663879 81 58 41
81.576576 -43.450569 664.123535 79 57 40
81.691391 -42.683819 664.581055 78 56 40
81.805466 -41.917130 665.038696 77 55 39
81.918045 -41.153706 665.498657 75 54 38
82.031738 -40.390240 665.958130 75 54 38
82.139977 -39.630096 666.410461 74 53 38
82.248375 -38.869999 666.862976 72 52 37
82.345337 -38.109684 667.312256 71 51 36
82.442360 -37.349430 667.761658 71 51 36
82.528290 -36.596939 668.172302 71 51 36
82.613525 -35.844479 668.583374 71 51 36
82.682594 -35.087910 668.996033 71 51 36
82.750710 -34.331387 669.408997 71 51 36
82.804726 -33.571236 669.812256 71 50 36
82.860535 -32.811008 670.215088 71 51 36
82.898071 -32.043034 670.607361 72 51 36
82.935471 -31.275053 670.999634 72 51 36
82.944954 -30.497519 671.379272 73 51 36
82.954445 -29.719973 671.758911 74 52 36
82.954201 -28.925987 672.120178 75 52 36
82.953316 -28.132042 672.481506 76 53 37
82.920532 -27.320190 672.819702 78 53 37
82.887573 -26.508289 673.157898 81 55 38
82.854324 -25.673399 673.466431 83 56 39
82.820374 -24.838440 673.775085 87 58 41
82.764618 -23.978275 674.047241 91 60 42
82.709381 -23.118013 674.319397 94 62 43
82.654526 -22.228720 674.550415 97 64 45
82.600586 -21.339424 674.781311 100 66 46
82.535110 -20.420839 674.966553 104 68 48
82.468742 -19.502361 675.152100 108 70 49
82.406448 -18.554298 675.290100 111 72 51
82.343849 -17.606438 675.428345 114 74 52
82.282448 -16.630934 675.523865 117 76 54
82.221909 -15.655608 675.619446 121 78 56
82.157326 -14.657870 675.675720 124 81 58
82.087997 -13.660148 675.731567 126 83 59
82.013756 -12.649468 675.754028 128 84 61
81.939980 -11.638498 675.776672 131 87 63
81.860443 -10.622357 675.760498 133 89 65
81.781303 -9.605872 675.744568 135 91 66
81.699600 -8.593223 675.684509 137 92 68
81.614555 -7.580452 675.623962 139 94 69
81.520920 -6.582798 675.518433 141 96 70
81.422272 -5.585715 675.412231 142 97 71
81.312767 -4.612205 675.273621 144 98 72
81.203392 -3.638460 675.134705 145 99 73
81.085411 -2.693037 674.971375 146 99 74
80.963638 -1.748417 674.807556 146 100 74
80.839546 -0.839904 674.630066 147 100 74
80.717079 0.068513 674.451782 147 101 75
80.584976 0.940198 674.261841 148 101 75
80.454445 1.812415 674.071167 148 101 75
80.325806 2.648427 673.868042 148 101 75
80.195869 3.484064 673.665527 148 101 76
80.063896 4.288611 673.455383 149 102 76
79.928200 5.092844 673.245178 149 102 76
79.789360 5.866536 673.031860 149 102 76
79.659119 6.641605 672.817505 149 102 76
79.526726 7.395728 672.599243 149 102 76
79.391647 8.149514 672.381897 149 103 76
79.255669 8.882389 672.161011 149 103 76
79.117691 9.614798 671.940308 149 103 76
78.985481 10.331123 671.716187 149 103 77
78.851334 11.047234 671.491638 149 103 77
78.712349 11.748275 671.265381 149 103 77
78.579475 12.450474 671.038208 149 103 77
78.447639 13.142816 670.809204 149 103 76
78.311501 13.834738 670.580444 149 103 77
78.178040 14.517898 670.354004 149 103 77
78.041931 15.200541 670.127502 149 103 76
77.904129 15.874872 669.901489 148 103 76
77.770256 16.550219 669.674561 148 102 76
77.634552 17.223490 669.452148 148 102 76
77.503281 17.897577 669.229492 148 102 76
77.368134 18.570562 669.009460 148 102 76
77.229919 19.242914 668.789368 148 102 75
77.094612 19.920298 668.569519 148 102 75
76.958160 20.597343 668.349365 148 102 75
76.818565 21.277479 668.125854 147 102 75
76.675888 21.956972 667.902039 147 102 75
76.531693 22.643614 667.672546 147 102 75
76.380692 23.328583 667.443359 147 102 75
76.234497 24.023752 667.206177 147 101 74
76.084099 24.718010 666.969849 147 101 74
75.922470 25.419874 666.728088 147 101 74
75.762497 26.121975 666.485352 147 102 75
75.593727 26.833755 666.238953 147 101 74
75.421341 27.544836 665.992798 147 101 74
75.243301 28.266396 665.745117 147 101 74
75.054955 28.985140 665.497803 147 101 74
74.868195 29.715300 665.247314 147 101 74
74.669769 30.443516 664.996338 148 101 74
74.466446 31.183571 664.744019 148 102 74
74.249695 31.919367 664.492493 148 102 74
74.029686 32.669209 664.239502 148 102 74
73.791794 33.413162 663.987305 148 102 75
73.550064 34.170422 663.734253 149 102 75
73.297020 34.922745 663.481323 149 103 75
73.029602 35.684307 663.226440 149 103 76
72.751167 36.441540 662.971619 150 103 76
72.461227 37.212742 662.668091 150 104 76
72.155174 37.978703 662.365601 150 104 76
71.840187 38.755890 662.061768 151 104 77
71.509514 39.526176 661.758545 151 105 77
79.411156 -63.148094 653.295654 128 92 68
79.554871 -62.296509 653.846863 120 87 64
79.696640 -61.445332 654.399292 116 83 61
79.819878 -60.603920 654.938843 111 80 58
79.942642 -59.762524 655.478088 107 76 55
80.050591 -58.932190 656.006470 103 73 52
80.157463 -58.102192 656.536133 99 70 50
80.259460 -57.279747 657.052856 96 68 48
80.359276 -56.457684 657.570496 93 65 46
80.451317 -55.643929 658.079895 91 64 45
80.544479 -54.830345 658.588928 89 63 44
80.634460 -54.024963 659.088135 89 62 44
80.723190 -53.219540 659.588074 87 62 44
80.810730 -52.421284 660.079346 87 61 43
80.899590 -51.623318 660.570862 86 61 43
80.992783 -50.831177 661.053833 85 60 43
81.087730 -50.038963 661.535950 85 61 43
81.186157 -49.252262 662.012451 84 60 43
81.284531 -48.465527 662.489502 83 59 42
81.385796 -47.683895 662.961670 81 58 41
81.488770 -46.901638 663.433899 80 57 40
81.596611 -46.124130 663.903381 78 56 40
81.703835 -45.346603 664.372803 77 55 39
81.814339 -44.574043 664.841675 76 54 38
81.924019 -43.800957 665.310303 73 53 37
82.035767 -43.030140 665.778931 72 52 37
82.146973 -42.259071 666.247131 71 51 36
82.254616 -41.492325 666.718262 70 51 36
82.362839 -40.725300 667.188965 69 50 35
82.463837 -39.962288 667.655151 68 49 35
82.565788 -39.199177 668.121704 67 49 34
82.656555 -38.439842 668.574158 66 48 33
82.746048 -37.680508 669.026855 66 48 33
82.823288 -36.926903 669.458679 66 48 33
82.900307 -36.173016 669.890442 66 47 33
82.958252 -35.417397 670.320923 66 47 33
83.017891 -34.661819 670.751404 66 47 33
83.059639 -33.903416 671.174194 66 47 33
83.100349 -33.145008 671.597229 66 47 33
83.117241 -32.380356 672.009644 67 48 33
83.134476 -31.615751 672.422058 68 48 34
83.133110 -30.841547 672.820679 70 49 34
83.132454 -30.066645 673.218811 71 50 35
83.104660 -29.277220 673.598389 72 50 35
83.077095 -28.487701 673.978027 74 51 36
83.031693 -27.678988 674.332520 76 52 36
82.986168 -26.870161 674.686584 80 54 37
82.923531 -26.038050 675.008911 84 56 39
82.860855 -25.206102 675.331299 88 58 41
82.793343 -24.344793 675.613892 92 61 42
82.724983 -23.483799 675.896729 95 62 43
82.648209 -22.591503 676.132019 99 65 45
82.573349 -21.699532 676.367188 104 67 47
82.500305 -20.774172 676.551697 108 70 49
82.427124 -19.847876 676.736816 111 72 51
82.357430 -18.888687 676.871887 114 74 52
82.289742 -17.928354 677.005371 118 76 54
82.226273 -16.937422 677.093628 121 78 56
82.161247 -15.947118 677.182007 123 80 57
82.098824 -14.930140 677.231873 127 83 60
82.032997 -13.913260 677.281677 129 85 61
81.971954 -12.880046 677.298340 132 87 63
81.912079 -11.845972 677.315002 133 89 65
81.847275 -10.804211 677.299316 136 91 67
81.785225 -9.762275 677.283936 138 93 68
81.707840 -8.724848 677.211792 140 95 70
81.634224 -7.686202 677.139343 142 97 71
81.549568 -6.665648 677.013855 144 98 73
81.457420 -5.645335 676.889099 145 100 73
81.349129 -4.651708 676.721069 146 100 74
81.236885 -3.658971 676.554260 147 101 75
81.120857 -2.697722 676.370239 148 101 75
81.001190 -1.737847 676.188171 149 102 76
80.874718 -0.818714 675.992981 149 102 76
80.744545 0.100122 675.796631 149 103 77
80.613747 0.975354 675.589783 149 103 77
80.481453 1.850959 675.381714 150 103 76
80.354462 2.686368 675.162720 149 103 76
80.218163 3.521603 674.941956 149 102 76
80.085213 4.319964 674.715637 149 103 77
79.953743 5.119436 674.487915 149 103 76
79.821594 5.889380 674.256287 149 103 77
79.687004 6.657874 674.026062 149 103 77
79.551483 7.404854 673.794250 149 103 77
79.423660 8.153301 673.562134 149 103 77
79.284203 8.879302 673.327881 149 103 77
79.147934 9.605941 673.093384 149 103 77
79.015060 10.315832 672.855286 149 103 77
78.880554 11.025522 672.616089 149 103 77
78.750092 11.721338 672.375122 149 103 77
78.618256 12.417299 672.133057 149 103 77
78.482880 13.101950 671.892456 149 103 76
78.347588 13.787074 671.649902 149 103 77
78.214951 14.462597 671.411804 149 103 76
78.075409 15.136895 671.174683 148 102 76
77.944534 15.806706 670.939758 148 102 76
77.813911 16.476381 670.704468 148 102 75
77.677399 17.143467 670.474243 148 102 75
77.537529 17.809496 670.244141 147 102 75
77.400055 18.476688 670.018677 147 102 75
77.266853 19.144434 669.793579 147 101 75
77.126602 19.816174 669.569336 147 102 75
76.985390 20.487616 669.345276 147 102 75
76.851257 21.165583 669.119080 147 101 75
76.713905 21.843327 668.892456 147 101 74
76.566460 22.526972 668.657715 147 101 74
76.417877 23.211235 668.422729 147 101 74
76.266716 23.904236 668.178833 147 101 74
76.114128 24.596640 667.935242 146 101 74
75.958488 25.299973 667.685486 146 100 74
75.797447 26.001827 667.435669 146 101 74
75.632462 26.715652 667.182495 146 101 74
75.458961 27.427738 666.929810 146 100 74
75.280319 28.150858 666.675720 146 100 74
75.100098 28.874475 666.421753 146 100 73
74.905800 29.606445 666.166077 146 101 74
74.703331 30.335823 665.910400 147 101 74
74.496124 31.078053 665.653381 147 101 74
74.285881 31.819321 665.395996 147 101 74
74.064926 32.573833 665.139099 147 101 74
73.835495 33.325027 664.882690 147 101 74
73.588539 34.085491 664.625977 148 101 74
73.329819 34.841267 664.370544 148 102 74
73.065849 35.610916 664.113098 149 102 75
72.785583 36.373829 663.856445 149 103 76
72.498955 37.152889 663.552917 149 103 75
72.192657 37.925163 663.250000 150 103 76
71.875282 38.708420 662.946350 150 103 76
71.539948 39.484592 662.643250 150 104 76
79.797386 -63.711914 654.363281 119 86 63
79.942429 -62.847031 654.915283 109 79 58
80.084480 -61.982216 655.468323 106 77 56
80.206841 -61.129379 656.009155 102 73 53
80.333771 -60.276459 656.549011 99 71 51
80.441345 -59.434509 657.079712 96 68 49
80.546120 -58.592922 657.611694 93 66 47
80.646103 -57.759956 658.132080 90 63 45
80.744682 -56.927193 658.652893 87 61 43
80.836594 -56.102959 659.165833 85 60 42
80.929817 -55.278767 659.678528 84 59 41
81.016518 -54.464848 660.182617 82 58 41
81.102470 -53.650963 660.686829 81 57 40
81.188019 -52.844654 661.184021 81 57 40
81.276199 -52.038036 661.679993 80 57 40
81.367020 -51.238029 662.168884 79 56 39
81.457474 -50.438335 662.657654 78 55 39
81.552361 -49.644547 663.141785 77 55 39
81.646667 -48.851158 663.626038 77 55 39
81.746269 -48.062706 664.105652 76 54 38
81.845375 -47.274185 664.585449 75 53 38
81.951912 -46.490311 665.063110 74 53 37
82.057899 -45.706863 665.541199 72 52 37
82.165855 -44.928841 666.018677 71 51 36
82.271744 -44.150913 666.497009 70 50 35
82.380173 -43.376244 666.976440 68 49 35
82.487999 -42.601471 667.455994 67 48 34
82.590965 -41.830940 667.937988 66 48 33
82.694847 -41.060341 668.419739 65 47 33
82.789787 -40.294296 668.899963 64 46 32
82.884285 -39.528328 669.380188 63 46 32
82.965065 -38.770058 669.836548 63 45 32
83.047714 -38.011551 670.292297 63 45 32
83.117378 -37.256489 670.744507 62 45 32
83.186028 -36.501526 671.197144 62 45 31
83.236748 -35.746952 671.645264 62 44 31
83.286102 -34.992390 672.093750 62 45 31
83.312691 -34.235779 672.536560 62 45 31
83.340584 -33.478985 672.979248 63 45 31
83.337357 -32.717583 673.411804 64 45 31
83.333755 -31.956240 673.844482 65 46 32
83.323563 -31.184855 674.261353 67 47 32
83.313011 -30.413424 674.678223 68 47 33
83.257248 -29.628347 675.076294 71 49 34
83.201126 -28.843306 675.474487 73 50 34
83.144669 -28.037609 675.845032 77 52 36
83.086823 -27.232016 676.215515 80 54 37
82.995438 -26.402803 676.551392 84 56 39
82.904732 -25.573605 676.887085 89 58 40
82.822678 -24.711601 677.180542 94 62 43
82.739281 -23.849567 677.473877 99 64 45
82.642067 -22.954794 677.713684 103 67 47
82.545418 -22.059872 677.953369 107 69 48
82.461716 -21.127363 678.137451 111 72 51
82.377556 -20.195101 678.321411 114 74 52
82.302910 -19.223293 678.451782 118 77 54
82.230774 -18.251358 678.582275 121 79 56
82.165970 -17.245245 678.663330 124 81 57
82.100136 -16.239304 678.744080 126 83 59
82.043678 -15.202279 678.787354 129 85 61
81.987617 -14.165198 678.830811 132 88 63
81.936295 -13.109430 678.842224 134 90 65
81.887169 -12.053563 678.853210 137 92 67
81.843681 -10.985982 678.837708 139 94 69
81.796432 -9.918493 678.822632 141 97 71
81.731964 -8.854994 678.737854 143 99 72
81.665947 -7.791143 678.653076 145 100 74
81.583755 -6.747738 678.508484 147 102 75
81.497780 -5.704697 678.363892 148 102 76
81.390366 -4.691266 678.168823 149 103 76
81.278778 -3.678314 677.973877 149 103 77
81.155685 -2.702981 677.770996 150 104 77
81.029137 -1.728127 677.567993 150 104 77
80.898567 -0.798808 677.355286 151 104 78
80.767876 0.130405 677.142395 151 104 78
80.633392 1.009157 676.917786 151 104 78
80.494774 1.887537 676.693359 151 104 77
80.358803 2.721481 676.456360 151 104 77
80.222542 3.555844 676.219543 150 103 77
80.093620 4.349633 675.975342 150 104 77
79.956749 5.142291 675.730835 150 103 77
79.824463 5.906174 675.483215 150 103 77
79.694740 6.670221 675.236145 150 103 77
79.565742 7.412166 674.989990 150 103 77
79.432388 8.153111 674.743469 150 103 77
79.302628 8.874620 674.495178 149 103 77
79.165390 9.594755 674.247131 149 103 77
79.035233 10.298440 673.994568 149 103 77
78.896301 11.001235 673.742310 149 103 77
78.762917 11.690224 673.485657 149 103 77
78.635948 12.379931 673.229553 149 103 77
78.504677 13.058409 672.975159 149 102 76
78.371216 13.736450 672.720703 149 102 76
78.235786 14.404272 672.470703 148 102 76
78.103020 15.072150 672.221680 148 102 76
77.972527 15.736224 671.978455 148 102 76
77.838211 16.399452 671.734924 147 102 75
77.702248 17.059790 671.496643 147 101 75
77.564720 17.719732 671.258484 147 101 75
77.428741 18.382030 671.028076 147 101 75
77.293228 19.044577 670.797791 147 101 74
77.156128 19.711758 670.569153 146 101 74
77.016724 20.378313 670.340759 146 101 74
76.870796 21.050951 670.112305 146 100 74
76.732063 21.725107 669.883667 146 100 74
76.589035 22.408407 669.642822 146 100 74
76.445946 23.091372 669.402039 146 100 73
76.292511 23.783066 669.151184 146 100 73
76.138657 24.473867 668.900757 146 100 73
75.978310 25.176479 668.642456 145 100 73
75.821693 25.879911 668.384583 145 100 73
75.653465 26.593349 668.125854 145 100 73
75.485100 27.307322 667.866821 145 99 73
75.308441 28.033859 667.606873 145 99 73
75.123062 28.757391 667.346252 146 100 73
74.930901 29.493471 667.085144 146 100 73
74.733330 30.227329 666.824097 146 100 74
74.524071 30.972319 666.562195 146 100 73
74.310493 31.716112 666.300171 146 100 73
74.086258 32.473774 666.040222 146 101 74
73.852592 33.228760 665.779175 146 100 74
73.614685 33.996414 665.519226 147 101 74
73.355949 34.758228 665.259094 147 101 74
73.084877 35.530872 664.999756 148 102 74
72.809769 36.302101 664.740784 148 102 75
72.514839 37.084511 664.437500 148 102 75
72.214226 37.865219 664.135193 149 102 75
71.896545 38.655079 663.831909 149 103 75
71.563477 39.439774 663.528809 149 103 76
80.155518 -64.267097 655.455017 109 79 58
80.301613 -63.390381 656.006409 100 72 52
80.449783 -62.513573 656.556763 96 70 50
80.575356 -61.648941 657.097412 93 67 48
80.699844 -60.784176 657.638733 91 65 47
80.811218 -59.930584 658.169434 88 63 45
80.920151 -59.077446 658.701233 86 61 43
81.019905 -58.234642 659.223938 84 59 42
81.119980 -57.391811 659.746216 81 57 40
81.212242 -56.558052 660.261475 79 56 39
81.306068 -55.723934 660.775818 78 55 38
81.395348 -54.900681 661.282654 77 55 38
81.482689 -54.077194 661.790100 76 54 38
81.568802 -53.262444 662.289917 75 54 37
81.655724 -52.447922 662.790771 75 53 37
81.744423 -51.640545 663.284424 74 52 37
81.831902 -50.834141 663.778931 73 52 36
81.926903 -50.032917 664.268494 72 51 36
82.023033 -49.232033 664.756287 71 51 36
82.120232 -48.438023 665.243408 70 50 35
82.220169 -47.643520 665.729431 70 50 35
82.325264 -46.854206 666.215027 68 49 34
82.430252 -46.064724 666.699585 67 48 34
82.538010 -45.281269 667.186523 66 47 33
82.644371 -44.497780 667.673035 65 47 33
82.754166 -43.719383 668.160889 65 47 33
82.862343 -42.940472 668.649963 64 47 33
82.963928 -42.166332 669.143921 63 46 32
83.064560 -41.392406 669.637207 61 44 31
83.155289 -40.624084 670.131775 61 44 31
83.245239 -39.855648 670.626038 60 43 30
83.321548 -39.097042 671.093689 60 43 30
83.398079 -38.338341 671.561462 60 43 30
83.456291 -37.584034 672.031433 59 43 30
83.515053 -36.829609 672.501221 58 42 29
83.555695 -36.076412 672.969421 58 42 29
83.596947 -35.323288 673.437622 58 42 29
83.608376 -34.571209 673.902710 59 42 29
83.619759 -33.819027 674.367615 59 42 29
83.609894 -33.062199 674.821777 61 43 29
83.599953 -32.305569 675.275879 62 43 30
83.562958 -31.542124 675.715820 64 45 31
83.524620 -30.778685 676.155945 66 46 31
83.459061 -30.000032 676.574463 70 47 33
83.393654 -29.221304 676.993042 73 49 34
83.301239 -28.422495 677.383423 77 52 36
83.208817 -27.623749 677.773987 82 54 37
83.103416 -26.796732 678.126831 86 57 39
82.997925 -25.970037 678.480408 91 59 41
82.888275 -25.108904 678.787354 97 63 44
82.778809 -24.247753 679.094238 102 66 46
82.664551 -23.350632 679.341248 107 69 49
82.552101 -22.453482 679.588501 111 72 50
82.456345 -21.513464 679.771118 115 75 53
82.361336 -20.572605 679.953308 119 77 55
82.277061 -19.588301 680.077515 122 79 56
82.193909 -18.604067 680.201843 125 82 58
82.128883 -17.577604 680.273682 127 84 60
82.064850 -16.551252 680.344543 130 86 62
82.020042 -15.490930 680.377258 132 88 63
81.976349 -14.430099 680.409119 135 91 66
81.946053 -13.347100 680.415588 138 94 68
81.912834 -12.263893 680.421509 141 96 70
81.892548 -11.161971 680.444275 144 99 73
81.871567 -10.060109 680.466431 147 102 75
81.820457 -8.968183 680.347778 148 104 76
81.762459 -7.876446 680.229492 150 105 78
81.675880 -6.803783 680.068420 151 106 79
81.585258 -5.731401 679.907227 152 106 79
81.459061 -4.695490 679.651978 152 106 79
81.326653 -3.660280 679.397278 152 106 79
81.188187 -2.663188 679.174255 152 106 79
81.044609 -1.666887 678.951721 152 105 78
80.900414 -0.726610 678.722351 152 105 78
80.753525 0.213172 678.492920 152 105 79
80.610077 1.094761 678.252808 152 105 78
80.468193 1.976554 678.012573 151 104 78
80.331390 2.804606 677.757813 151 104 78
80.188766 3.631548 677.503174 151 104 78
80.051315 4.412987 677.236206 151 104 78
79.917419 5.196530 676.969360 151 104 77
79.789902 5.950233 676.707703 150 103 77
79.658768 6.703490 676.446106 150 103 77
79.531784 7.436966 676.187012 150 103 77
79.400932 8.168844 675.929199 150 103 77
79.275330 8.882481 675.670532 150 103 77
79.147453 9.596417 675.410583 150 103 77
79.013557 10.291955 675.141357 149 103 77
78.880066 10.987551 674.874451 149 103 77
78.754448 11.669189 674.599426 149 103 77
78.624840 12.349570 674.325317 149 102 76
78.494240 13.018890 674.054810 149 103 77
78.370651 13.689368 673.783447 148 102 76
78.239555 14.349064 673.522949 148 102 76
78.107338 15.008484 673.262390 148 102 75
77.976372 15.664296 673.009338 148 101 75
77.848488 16.320593 672.755981 147 101 75
77.714783 16.974503 672.512390 147 101 75
77.579071 17.628159 672.268250 147 101 75
77.438950 18.282703 672.032410 147 101 75
77.305428 18.938936 671.796387 146 101 74
77.173241 19.600473 671.565918 146 100 74
77.032707 20.260931 671.336060 146 100 74
76.891647 20.929462 671.116211 146 100 74
76.747658 21.597599 670.895996 145 100 73
76.603073 22.277248 670.644165 145 100 73
76.462868 22.958128 670.391296 145 99 73
76.308456 23.647766 670.132202 145 99 73
76.156555 24.338198 669.871338 144 99 73
75.997093 25.040890 669.602722 145 99 73
75.838348 25.744066 669.333374 144 99 73
75.676277 26.459955 669.066162 145 99 73
75.504303 27.173883 668.800293 144 99 72
75.320755 27.899096 668.534241 144 99 72
75.139114 28.625259 668.267761 145 99 72
74.945625 29.363279 668.001282 145 99 73
74.752586 30.101389 667.734070 145 100 73
74.545494 30.850832 667.468140 145 100 73
74.332230 31.598980 667.201782 145 100 73
74.109940 32.360855 666.937073 145 100 73
73.876770 33.119007 666.672668 146 100 73
73.628281 33.889034 666.410095 146 100 73
73.375847 34.657791 666.147827 146 100 73
73.107086 35.436325 665.885620 146 100 74
72.826935 36.210384 665.624084 147 101 74
72.539543 37.001842 665.320862 147 101 74
72.231766 37.785072 665.018616 148 102 75
71.913872 38.582657 664.718384 149 102 75
71.581017 39.374962 664.417542 149 102 75
80.512283 -64.822365 656.547302 100 72 52
80.665649 -63.933632 657.095459 92 66 48
80.818031 -63.045059 657.644409 89 64 46
80.944527 -62.168289 658.185730 87 62 44
81.071716 -61.291370 658.726746 84 60 43
81.184540 -60.426426 659.258301 81 58 41
81.296814 -59.561707 659.789917 79 56 39
81.397614 -58.708866 660.314148 77 55 38
81.497559 -57.856220 660.838623 76 53 37
81.590912 -57.012646 661.355652 74 52 36
81.683311 -56.169109 661.872864 73 51 35
81.771324 -55.336529 662.383362 72 51 36
81.859650 -54.503830 662.893860 72 51 36
81.946327 -53.680611 663.397095 71 51 35
82.032326 -52.857758 663.900818 70 50 35
82.120712 -52.043186 664.399780 69 49 34
82.208679 -51.228710 664.898987 68 49 34
82.301659 -50.421219 665.393860 68 49 34
82.395294 -49.613728 665.888184 68 49 34
82.493263 -48.813290 666.381226 66 48 34
82.591583 -48.012859 666.874390 65 47 33
82.695755 -47.218189 667.367126 64 46 32
82.800331 -46.422943 667.859253 63 46 32
82.909302 -45.633831 668.354065 62 45 31
83.018852 -44.844631 668.848633 62 45 31
83.127403 -44.062229 669.346436 61 45 31
83.235191 -43.279709 669.844482 60 44 31
83.335251 -42.502174 670.349609 60 43 30
83.435616 -41.724522 670.854492 59 43 30
83.520981 -40.953743 671.362915 58 42 29
83.605797 -40.183056 671.871460 57 42 29
83.676071 -39.424110 672.351318 57 42 29
83.746811 -38.665112 672.830872 56 41 28
83.795029 -37.911518 673.318359 55 40 27
83.842972 -37.157883 673.805664 55 40 27
83.874260 -36.406162 674.293945 55 40 27
83.906227 -35.654358 674.781982 55 40 27
83.901596 -34.906864 675.269226 55 39 27
83.896896 -34.159309 675.756470 56 40 27
83.881142 -33.407158 676.231934 57 40 27
83.865829 -32.654991 676.707397 59 41 28
83.801292 -31.899469 677.170410 62 43 29
83.736748 -31.143980 677.633545 65 44 30
83.661453 -30.371706 678.072571 69 46 32
83.586388 -29.599409 678.511597 74 49 34
83.460243 -28.807140 678.921692 79 52 36
83.334015 -28.014803 679.331726 84 55 38
83.213516 -27.190643 679.702576 89 58 41
83.093079 -26.366438 680.073303 95 62 43
82.955971 -25.506124 680.393921 101 65 46
82.821167 -24.645714 680.714172 106 69 48
82.691917 -23.746252 680.968628 112 72 51
82.562775 -22.846783 681.222961 117 76 54
82.456375 -21.898806 681.403992 121 79 56
82.350952 -20.950745 681.584961 124 80 57
82.256432 -19.953243 681.702881 127 83 59
82.162354 -18.955811 681.820801 129 85 60
82.097672 -17.909624 681.883301 131 86 62
82.034653 -16.863213 681.945435 133 88 63
82.000778 -15.779374 681.966736 136 91 66
81.967712 -14.695510 681.987671 138 94 68
81.961311 -13.584760 681.988770 142 97 71
81.958008 -12.473845 681.988953 146 101 74
81.966042 -11.337852 682.048096 149 105 77
81.972237 -10.201821 682.107300 153 108 80
81.931290 -9.081197 681.954895 155 110 82
81.885178 -7.960777 681.803162 157 111 83
81.789513 -6.858793 681.625854 157 111 83
81.686775 -5.757185 681.449585 157 111 82
81.536568 -4.699012 681.134033 156 110 82
81.381523 -3.641400 680.819031 156 109 81
81.222610 -2.623502 680.576904 156 108 81
81.059776 -1.606135 680.335205 155 108 80
80.901070 -0.654826 680.089355 154 107 79
80.739418 0.296039 679.843506 154 107 79
80.584373 1.179456 679.587585 153 106 79
80.427086 2.062894 679.331177 153 105 78
80.283699 2.883670 679.058594 152 105 78
80.142105 3.704486 678.786377 152 105 78
80.004745 4.476193 678.497253 152 105 78
79.869629 5.248395 678.207520 152 105 78
79.740494 5.991765 677.931580 151 104 78
79.611214 6.735236 677.655579 151 104 78
79.481842 7.458466 677.384766 151 104 77
79.352150 8.181440 677.114563 151 103 77
79.224075 8.886737 676.843994 150 103 77
79.101616 9.592926 676.572998 150 103 77
78.980057 10.282761 676.289917 150 103 77
78.853943 10.971569 676.005615 149 103 76
78.727814 11.644464 675.713867 149 103 76
78.601677 12.317079 675.421387 149 102 76
78.477982 12.977807 675.133789 149 102 76
78.352295 13.638443 674.846313 149 102 76
78.227852 14.291064 674.575134 148 102 76
78.104301 14.943696 674.303650 148 101 75
77.976456 15.591708 674.041138 147 101 75
77.844109 16.238516 673.778076 147 101 75
77.712776 16.886082 673.527588 147 101 75
77.581490 17.533756 673.277222 146 101 75
77.447212 18.183081 673.035645 146 101 75
77.309990 18.831579 672.794312 146 100 74
77.171349 19.485912 672.563110 146 100 74
77.038849 20.141575 672.331665 145 99 73
76.897278 20.804733 672.119873 145 99 73
76.753036 21.467478 671.907898 145 99 73
76.609566 22.144558 671.645020 144 99 73
76.464279 22.821011 671.381775 144 98 72
76.316879 23.511053 671.112183 144 99 72
76.166306 24.200289 670.842651 143 98 72
76.008575 24.903334 670.562317 143 98 72
75.848274 25.605968 670.281860 143 98 72
75.681480 26.321804 670.008362 144 98 72
75.512207 27.037338 669.734741 144 98 72
75.338753 27.766293 669.462708 144 98 72
75.151634 28.492338 669.189514 144 98 72
74.958275 29.233139 668.917542 143 98 71
74.764915 29.973330 668.644470 144 98 72
74.555580 30.726118 668.373596 144 99 72
74.341736 31.477373 668.103271 144 99 72
74.120300 32.242592 667.835144 144 99 72
73.885651 33.004292 667.566650 145 99 72
73.641014 33.781033 667.301147 145 99 73
73.386826 34.554390 667.035461 145 99 72
73.117462 35.337322 666.771057 146 100 73
72.840828 36.117638 666.507263 146 101 74
72.549759 36.912540 666.204224 147 100 73
72.242805 37.702404 665.901672 147 101 73
71.924911 38.507946 665.604248 147 101 74
71.590393 39.306473 665.306824 148 102 74
80.840302 -65.367813 657.660828 92 66 48
80.993919 -64.467384 658.208374 86 62 44
81.148804 -63.567215 658.755493 83 60 43
81.280319 -62.679329 659.294617 81 59 42
81.410751 -61.791595 659.833923 79 57 40
81.527367 -60.916172 660.364502 76 55 38
81.643951 -60.040855 660.895569 74 53 37
81.746315 -59.177990 661.420044 73 51 36
81.849709 -58.314613 661.944885 71 51 35
81.943245 -57.462242 662.463074 70 50 35
82.038200 -56.609783 662.981323 69 49 34
82.127899 -55.768318 663.493286 69 49 34
82.218063 -54.926708 664.004822 68 49 34
82.307762 -54.095070 664.510498 67 49 34
82.394821 -53.263878 665.017090 67 48 34
82.485580 -52.441422 665.518677 67 48 34
82.574966 -51.618961 666.020752 65 47 33
82.667809 -50.805374 666.520447 64 46 32
82.762550 -49.990726 667.019897 63 46 32
82.864784 -49.184254 667.517212 63 45 32
82.966911 -48.377193 668.014099 62 45 31
83.071770 -47.577034 668.513428 61 44 31
